3.3498 -2.8852 1.3785 0.576
3.3428 -2.8287 1.3655 0.564
3.3417 -2.7781 1.3550 0.561
3.3362 -2.7247 1.3431 0.578
3.3301 -2.6715 1.3312 0.580
3.3263 -2.6211 1.3205 0.570
3.3203 -2.5698 1.3092 0.566
3.3183 -2.5222 1.2997 0.566
3.3104 -2.4709 1.2881 0.582
3.3087 -2.4250 1.2791 0.572
3.3034 -2.3771 1.2690 0.574
3.2975 -2.3294 1.2589 0.563
3.2957 -2.2853 1.2505 0.557
3.2958 -2.2430 1.2431 0.564
3.2859 -2.1946 1.2321 0.588
3.2810 -2.1501 1.2232 0.568
3.2803 -2.1090 1.2160 0.572
3.2760 -2.0660 1.2077 0.572
3.2720 -2.0238 1.1996 0.568
3.2708 -1.9838 1.1928 0.561
3.2641 -1.9410 1.1842 0.578
3.2587 -1.8995 1.1761 0.578
3.2594 -1.8620 1.1705 0.570
3.2555 -1.8223 1.1633 0.580
3.2520 -1.7832 1.1565 0.574
3.2465 -1.7435 1.1490 0.576
3.2446 -1.7062 1.1431 0.561
3.2424 -1.6691 1.1371 0.563
3.2356 -1.6300 1.1297 0.561
3.2317 -1.5928 1.1234 0.574
3.2265 -1.5555 1.1169 0.576
3.2236 -1.5195 1.1112 0.568
3.2211 -1.4841 1.1059 0.570
3.2200 -1.4497 1.1011 0.572
3.3993 -3.3101 1.4795 0.490
3.3867 -3.2407 1.4616 0.545
3.3780 -3.1764 1.4458 0.566
3.3768 -3.1202 1.4336 0.564
3.3672 -3.0572 1.4181 0.563
0.1229 -0.1134 0.0691 0.588
0.1239 -0.1124 0.0691 0.590
0.1373 -0.1223 0.0760 0.564
0.1293 -0.1132 0.0710 0.578
0.1121 -0.0964 0.0611 0.320
0.0932 -0.0787 0.0504 0.256
0.0832 -0.0691 0.0447 0.123
0.0731 -0.0596 0.0390 0.145
0.0779 -0.0624 0.0412 0.127
3.3243 -2.6158 1.7479 0.514
3.3236 -2.5686 1.7357 0.512
3.3128 -2.5144 1.7185 0.523
3.3087 -2.4660 1.7051 0.516
3.3062 -2.4196 1.6929 0.512
3.3009 -2.3718 1.6795 0.512
3.2951 -2.3242 1.6662 0.512
3.2940 -2.2807 1.6555 0.521
3.2893 -2.2352 1.6433 0.520
3.2871 -2.1921 1.6326 0.523
3.2837 -2.1486 1.6215 0.506
3.2790 -2.1049 1.6100 0.514
3.2730 -2.0610 1.5982 0.512
3.2673 -2.0177 1.5867 0.514
3.2626 -1.9757 1.5761 0.531
3.2575 -1.9340 1.5654 0.510
3.2559 -1.8948 1.5566 0.514
3.2538 -1.8558 1.5478 0.498
3.2457 -1.8138 1.5363 0.510
3.2427 -1.7752 1.5276 0.518
3.2410 -1.7377 1.5195 0.516
3.2339 -1.6977 1.5092 0.512
3.2347 -1.6622 1.5027 0.531
3.2317 -1.6252 1.4947 0.520
3.2292 -1.5888 1.4871 0.529
3.2229 -1.5510 1.4779 0.508
3.2204 -1.5153 1.4707 0.508
3.2159 -1.4790 1.4626 0.508
3.2177 -1.4460 1.4577 0.508
3.2099 -1.4089 1.4485 0.502
0.0697 -0.0299 0.0313 0.133
3.2033 -1.3399 1.4348 0.518
0.0702 -0.0286 0.0313 0.148
3.1979 -1.2725 1.4222 0.510
0.0732 -0.0284 0.0325 0.127
0.0666 -0.0252 0.0294 0.139
3.1859 -1.1720 1.4027 0.500
0.0801 -0.0287 0.0351 0.127
3.1814 -1.1078 1.3920 0.504
3.1796 -1.0761 1.3870 0.514
0.0781 -0.0257 0.0340 0.146
0.0669 -0.0214 0.0290 0.146
0.0680 -0.0210 0.0294 0.143
0.0788 -0.0236 0.0340 0.129
0.0781 -0.0227 0.0336 0.152
0.0792 -0.0223 0.0340 0.129
0.0767 -0.0208 0.0328 0.146
0.7456 -0.1956 0.3185 0.215
0.7463 -0.1888 0.3181 0.471
0.7381 -0.1799 0.3139 0.480
0.7441 -0.1745 0.3158 0.475
3.3727 -3.0580 1.8812 0.398
3.3655 -2.9983 1.8625 0.484
3.3547 -2.9366 1.8422 0.496
3.3465 -2.8783 1.8239 0.508
3.3433 -2.8251 1.8086 0.516
3.3386 -2.7716 1.7930 0.523
3.3326 -2.7178 1.7769 0.516
3.3266 -2.6649 1.7613 0.512
3.2085 -1.3750 1.4424 0.531
3.2004 -1.3059 1.4283 0.512
3.1934 -1.2385 1.4153 0.516
3.1902 -1.2054 1.4092 0.508
3.1864 -1.1408 1.3985 0.514
3.1783 -1.0448 1.3824 0.510
3.1741 -1.0129 1.3767 0.510
3.1687 -0.9807 1.3706 0.508
3.1665 -0.9499 1.3660 0.518
3.1578 -0.9173 1.3588 0.510
3.1568 -0.8872 1.3549 0.475
0.7456 -0.1956 0.3185 0.215
0.7463 -0.1888 0.3181 0.471
0.7381 -0.1799 0.3139 0.480
0.7441 -0.1745 0.3158 0.475
0.0813 -0.0183 -0.0110 0.234
0.0688 -0.0148 -0.0093 0.207
0.0767 -0.0158 -0.0103 0.232
0.0807 -0.0159 -0.0109 0.281
0.0740 -0.0139 -0.0099 0.223
0.0751 -0.0135 -0.0101 0.223
0.0665 -0.0113 -0.0089 0.238
0.0734 -0.0118 -0.0098 0.244
0.0794 -0.0121 -0.0106 0.271
0.0765 -0.0110 -0.0102 0.279
0.0757 -0.0102 -0.0101 0.236
0.0826 -0.0104 -0.0110 0.301
0.0748 -0.0087 -0.0099 0.236
0.0749 -0.0081 -0.0099 0.281
0.0848 -0.0084 -0.0113 0.227
0.0820 -0.0074 -0.0109 0.244
0.0781 -0.0064 -0.0103 0.215
0.0702 -0.0051 -0.0093 0.268
0.0791 -0.0051 -0.0105 0.242
0.0792 -0.0044 -0.0105 0.271
0.0812 -0.0038 -0.0107 0.234
0.0822 -0.0031 -0.0109 0.297
0.0733 -0.0021 -0.0097 0.232
0.0833 -0.0017 -0.0110 0.275
0.0813 -0.0009 -0.0107 0.285
0.0714 -0.0002 -0.0094 0.293
0.0704 0.0004 -0.0093 0.188
0.0872 0.0013 -0.0115 0.211
0.0813 0.0019 -0.0107 0.230
0.0882 0.0028 -0.0116 0.248
0.0832 0.0034 -0.0110 0.221
0.0812 0.0040 -0.0107 0.229
0.0782 0.0046 -0.0103 0.240
0.0722 0.0048 -0.0096 0.193
0.0850 0.0064 -0.0113 0.193
0.0761 0.0064 -0.0101 0.193
0.0819 0.0077 -0.0109 0.207
0.0828 0.0085 -0.0110 0.219
0.0907 0.0101 -0.0120 0.164
0.0797 0.0096 -0.0106 0.164
0.0816 0.0105 -0.0109 0.139
0.0678 0.0093 -0.0090 0.135
0.0746 0.0109 -0.0099 0.133
0.0715 0.0111 -0.0096 0.166
0.0802 0.0132 -0.0107 0.191
0.0772 0.0134 -0.0103 0.180
0.0810 0.0148 -0.0109 0.168
0.0779 0.0149 -0.0105 0.199
0.0710 0.0142 -0.0096 0.197
0.0767 0.0161 -0.0103 0.172
0.0688 0.0150 -0.0093 0.197
0.0822 0.0187 -0.0111 0.195
0.0743 0.0176 -0.0101 0.182
0.0789 0.0194 -0.0107 0.236
0.0826 0.0211 -0.0113 0.205
0.0824 0.0218 -0.0113 0.182
0.0650 0.0178 -0.0089 0.227
0.0753 0.0214 -0.0103 0.236
0.0704 0.0206 -0.0097 0.209
0.0750 0.0227 -0.0103 0.234
3.1311 -0.7036 -0.4236 0.531
3.1274 -0.6741 -0.4223 0.529
3.1293 -0.6460 -0.4218 0.523
3.1231 -0.6164 -0.4202 0.529
3.1226 -0.5880 -0.4194 0.527
3.1139 -0.5583 -0.4176 0.527
3.1108 -0.5297 -0.4165 0.520
3.1144 -0.5024 -0.4164 0.525
3.1079 -0.4736 -0.4150 0.520
3.1070 -0.4457 -0.4143 0.506
3.0999 -0.4171 -0.4129 0.510
3.0995 -0.3896 -0.4123 0.514
3.0949 -0.3616 -0.4113 0.516
3.0950 -0.3343 -0.4109 0.520
3.0909 -0.3066 -0.4100 0.516
3.0885 -0.2791 -0.4093 0.512
3.0859 -0.2518 -0.4087 0.506
3.0820 -0.2244 -0.4079 0.512
3.0809 -0.1973 -0.4075 0.520
3.0786 -0.1702 -0.4070 0.516
3.0760 -0.1431 -0.4065 0.512
3.0741 -0.1162 -0.4061 0.506
3.0701 -0.0892 -0.4054 0.523
3.0628 -0.0622 -0.4044 0.506
3.0642 -0.0355 -0.4045 0.502
3.0594 -0.0088 -0.4038 0.154
1.7776 0.0104 -0.2346 0.520
1.7724 0.0259 -0.2340 0.539
1.7781 0.0415 -0.2348 0.508
3.0510 0.0978 -0.4029 0.500
3.0480 0.1243 -0.4027 0.506
3.0438 0.1508 -0.4023 0.521
3.0424 0.1773 -0.4023 0.525
3.0388 0.2038 -0.4020 0.518
3.0408 0.2306 -0.4025 0.510
3.0318 0.2565 -0.4016 0.521
3.0274 0.2828 -0.4014 0.523
3.0298 0.3097 -0.4020 0.514
3.0250 0.3359 -0.4017 0.520
3.0210 0.3622 -0.4016 0.521
3.0226 0.3891 -0.4023 0.521
3.0132 0.4147 -0.4015 0.514
3.0134 0.4415 -0.4020 0.508
3.0153 0.4687 -0.4028 0.520
3.0101 0.4949 -0.4027 0.506
3.0057 0.5211 -0.4027 0.514
3.0069 0.5484 -0.4034 0.518
3.0000 0.5742 -0.4032 0.514
2.9969 0.6008 -0.4034 0.512
2.9944 0.6275 -0.4038 0.527
2.9908 0.6541 -0.4041 0.518
2.9898 0.6812 -0.4048 0.508
2.9827 0.7071 -0.4046 0.514
2.9842 0.7350 -0.4057 0.523
2.9776 0.7610 -0.4057 0.508
2.9814 0.7897 -0.4071 0.525
2.9754 0.8160 -0.4072 0.510
2.9767 0.8443 -0.4084 0.496
2.9673 0.8697 -0.4082 0.521
2.9691 0.8985 -0.4095 0.508
3.0594 -0.0088 -0.4038 0.154
0.0742 -0.0324 -0.0038 0.156
0.0671 -0.0286 -0.0034 0.162
0.0821 -0.0341 -0.0041 0.150
0.0722 -0.0293 -0.0036 0.174
0.0771 -0.0305 -0.0038 0.209
0.0951 -0.0366 -0.0047 0.154
0.0804 -0.0302 -0.0040 0.182
0.0760 -0.0278 -0.0038 0.242
0.0772 -0.0275 -0.0038 0.162
0.0831 -0.0287 -0.0041 0.172
0.0682 -0.0229 -0.0033 0.236
0.0655 -0.0214 -0.0032 0.213
0.0771 -0.0244 -0.0038 0.197
0.0659 -0.0202 -0.0032 0.188
0.0622 -0.0185 -0.0030 0.234
0.0720 -0.0208 -0.0035 0.252
0.0683 -0.0191 -0.0033 0.230
0.0839 -0.0226 -0.0040 0.184
0.0677 -0.0176 -0.0032 0.236
0.0746 -0.0187 -0.0036 0.205
0.0660 -0.0160 -0.0032 0.197
0.0798 -0.0185 -0.0038 0.234
0.0643 -0.0144 -0.0031 0.236
0.0645 -0.0138 -0.0031 0.262
0.0861 -0.0176 -0.0041 0.242
0.0725 -0.0142 -0.0034 0.250
0.0756 -0.0141 -0.0036 0.234
0.0610 -0.0108 -0.0029 0.268
0.0788 -0.0133 -0.0037 0.227
0.0651 -0.0104 -0.0031 0.232
0.0761 -0.0115 -0.0036 0.281
0.0643 -0.0091 -0.0030 0.256
0.0693 -0.0092 -0.0032 0.268
0.0763 -0.0095 -0.0036 0.174
0.0794 -0.0092 -0.0037 0.207
0.0725 -0.0077 -0.0034 0.205
0.0845 -0.0083 -0.0039 0.182
0.0786 -0.0070 -0.0037 0.174
0.0846 -0.0068 -0.0039 0.180
0.0737 -0.0053 -0.0034 0.166
0.0827 -0.0052 -0.0038 0.168
0.0688 -0.0037 -0.0032 0.203
0.0748 -0.0034 -0.0035 0.162
0.0699 -0.0025 -0.0032 0.141
0.0779 -0.0021 -0.0036 0.164
1.7378 -0.0328 -0.0806 0.230
0.0849 -0.0009 -0.0039 0.125
0.0879 -0.0001 -0.0041 0.131
0.0749 0.0005 -0.0035 0.127
0.0729 0.0012 -0.0034 0.129
0.0809 0.0020 -0.0038 0.137
0.0719 0.0024 -0.0033 0.135
0.0848 0.0036 -0.0039 0.143
0.0658 0.0034 -0.0031 0.164
0.0598 0.0036 -0.0028 0.141
0.0787 0.0054 -0.0037 0.182
0.0817 0.0063 -0.0038 0.182
0.0816 0.0070 -0.0038 0.160
0.0796 0.0075 -0.0037 0.146
0.0745 0.0077 -0.0035 0.195
3.1960 -1.3951 -0.1618 0.486
1.8627 -0.7938 -0.0939 0.438
1.8558 -0.7718 -0.0932 0.508
1.8550 -0.7525 -0.0929 0.504
1.8597 -0.7356 -0.0928 0.494
1.8716 -0.7215 -0.0931 0.471
3.1758 -1.1925 -0.1574 0.504
3.1721 -1.1596 -0.1567 0.504
3.1698 -1.1275 -0.1561 0.494
3.1682 -1.0959 -0.1555 0.508
3.1644 -1.0638 -0.1549 0.498
3.1584 -1.0312 -0.1541 0.496
3.1596 -1.0011 -0.1538 0.498
3.1530 -0.9688 -0.1530 0.494
3.1479 -0.9373 -0.1524 0.512
3.1483 -0.9076 -0.1520 0.477
2.7789 -0.7749 -0.1338 0.482
2.7778 -0.7485 -0.1335 0.492
2.8645 -0.7451 -0.1373 0.551
3.1393 -0.7874 -0.1501 0.479
3.1353 -0.7574 -0.1496 0.492
3.1350 -0.7284 -0.1493 0.516
3.1266 -0.6978 -0.1486 0.510
3.1258 -0.6690 -0.1483 0.502
3.1305 -0.6415 -0.1482 0.504
3.1213 -0.6113 -0.1475 0.490
3.1177 -0.5824 -0.1471 0.500
3.1098 -0.5529 -0.1465 0.498
3.1145 -0.5257 -0.1465 0.500
3.1091 -0.4969 -0.1461 0.486
3.1045 -0.4685 -0.1456 0.492
3.1015 -0.4404 -0.1453 0.486
3.1033 -0.4130 -0.1452 0.490
3.0998 -0.3851 -0.1449 0.494
3.0961 -0.3572 -0.1446 0.482
3.0912 -0.3293 -0.1442 0.482
3.0899 -0.3019 -0.1440 0.480
3.0885 -0.2746 -0.1438 0.477
3.0858 -0.2472 -0.1436 0.482
3.0818 -0.2199 -0.1433 0.482
3.0817 -0.1929 -0.1432 0.488
3.0792 -0.1657 -0.1431 0.480
3.0746 -0.1386 -0.1428 0.484
3.0767 -0.1118 -0.1428 0.488
3.0695 -0.0847 -0.1424 0.484
1.7858 -0.0337 -0.0829 0.430
1.7740 -0.0180 -0.0823 0.498
1.7781 -0.0025 -0.0825 0.510
1.7920 0.0131 -0.0831 0.490
3.0573 0.0490 -0.1418 0.473
3.0528 0.0756 -0.1417 0.492
3.0490 0.1022 -0.1415 0.492
3.0480 0.1288 -0.1415 0.492
3.0448 0.1553 -0.1414 0.482
3.0423 0.1818 -0.1414 0.490
3.0426 0.2084 -0.1415 0.496
3.0397 0.2349 -0.1414 0.492
3.0375 0.2614 -0.1414 0.492
3.0321 0.2876 -0.1413 0.482
3.0305 0.3142 -0.1413 0.486
3.1934 -1.3608 -0.1610 0.150
3.1867 -1.2285 -0.1584 0.449
2.4044 0.0176 -0.1115 0.184
0.0870 -0.0000 -0.0004 0.297
0.0730 0.0006 -0.0003 0.281
0.0730 0.0013 -0.0003 0.271
0.0700 0.0018 -0.0003 0.277
0.0780 0.0027 -0.0004 0.252
0.0749 0.0033 -0.0003 0.305
0.0749 0.0039 -0.0003 0.287
0.0719 0.0044 -0.0003 0.311
0.0768 0.0054 -0.0004 0.291
0.0698 0.0055 -0.0003 0.307
0.0747 0.0065 -0.0003 0.322
0.0786 0.0076 -0.0004 0.301
0.0796 0.0084 -0.0004 0.307
0.0745 0.0085 -0.0003 0.283
0.0784 0.0096 -0.0004 0.291
0.0783 0.0103 -0.0004 0.303
0.0792 0.0111 -0.0004 0.318
0.0702 0.0105 -0.0003 0.305
0.0652 0.0103 -0.0003 0.311
0.0779 0.0130 -0.0004 0.277
0.0719 0.0127 -0.0003 0.295
0.0777 0.0144 -0.0004 0.295
0.0677 0.0132 -0.0003 0.271
0.0715 0.0146 -0.0003 0.275
0.0714 0.0152 -0.0003 0.303
0.0674 0.0149 -0.0003 0.246
0.0663 0.0153 -0.0003 0.271
0.0690 0.0166 -0.0003 0.240
0.0640 0.0160 -0.0003 0.207
0.0784 0.0203 -0.0004 0.256
0.0753 0.0202 -0.0004 0.221
0.0675 0.0187 -0.0003 0.213
0.0711 0.0204 -0.0003 0.238
0.0652 0.0193 -0.0003 0.174
0.0784 0.0240 -0.0004 0.201
0.0734 0.0232 -0.0004 0.217
0.0675 0.0219 -0.0003 0.211
0.0531 0.0178 -0.0003 0.178
0.0662 0.0228 -0.0003 0.199
0.0698 0.0247 -0.0003 0.219
0.0846 0.0308 -0.0004 0.158
0.0609 0.0228 -0.0003 0.191
0.0719 0.0276 -0.0004 0.215
0.0763 0.0301 -0.0004 0.178
0.0695 0.0281 -0.0003 0.254
0.0601 0.0249 -0.0003 0.174
0.0700 0.0297 -0.0003 0.176
0.0724 0.0315 -0.0004 0.170
0.0649 0.0289 -0.0003 0.234
0.0610 0.0278 -0.0003 0.219
0.0689 0.0321 -0.0003 0.260
0.0668 0.0319 -0.0003 0.211
0.0683 0.0333 -0.0003 0.266
0.0662 0.0330 -0.0003 0.225
0.0722 0.0368 -0.0004 0.211
0.0656 0.0342 -0.0003 0.275
0.0618 0.0329 -0.0003 0.250
0.0712 0.0386 -0.0004 0.240
0.0647 0.0359 -0.0003 0.268
0.0688 0.0389 -0.0004 0.246
1.7790 -0.0000 -0.0081 0.549
1.7759 0.0155 -0.0081 0.484
3.0485 0.0532 -0.0139 0.477
3.0469 0.0797 -0.0139 0.471
3.0421 0.1062 -0.0139 0.482
3.0391 0.1326 -0.0139 0.467
3.0358 0.1590 -0.0138 0.477
3.0393 0.1858 -0.0139 0.486
3.0366 0.2123 -0.0139 0.480
3.0316 0.2385 -0.0138 0.482
3.0304 0.2651 -0.0139 0.486
3.0260 0.2913 -0.0138 0.480
3.0263 0.3180 -0.0139 0.480
3.0224 0.3443 -0.0139 0.469
3.0163 0.3703 -0.0138 0.480
3.0120 0.3965 -0.0138 0.484
3.0104 0.4230 -0.0138 0.473
3.0046 0.4490 -0.0138 0.475
3.0055 0.4760 -0.0139 0.469
3.0062 0.5030 -0.0139 0.477
3.0007 0.5290 -0.0139 0.482
2.9950 0.5550 -0.0139 0.484
2.9939 0.5819 -0.0139 0.477
2.9927 0.6088 -0.0139 0.482
2.9882 0.6351 -0.0139 0.473
2.9855 0.6618 -0.0139 0.473
2.9845 0.6890 -0.0139 0.475
2.9803 0.7155 -0.0140 0.479
2.9749 0.7417 -0.0140 0.484
2.9703 0.7681 -0.0140 0.475
2.9654 0.7945 -0.0140 0.479
2.9689 0.8233 -0.0140 0.480
2.9597 0.8486 -0.0140 0.477
2.9599 0.8767 -0.0141 0.479
2.9559 0.9037 -0.0141 0.477
2.9565 0.9321 -0.0141 0.475
2.9521 0.9591 -0.0141 0.473
2.9483 0.9864 -0.0142 0.484
2.9434 1.0134 -0.0142 0.473
2.9382 1.0404 -0.0142 0.477
2.9393 1.0698 -0.0142 0.465
2.9336 1.0968 -0.0143 0.475
2.9314 1.1252 -0.0143 0.488
2.9262 1.1526 -0.0143 0.484
2.9262 1.1822 -0.0144 0.475
2.9195 1.2092 -0.0144 0.490
2.9235 1.2409 -0.0145 0.492
2.9153 1.2676 -0.0145 0.490
2.9124 1.2966 -0.0145 0.494
2.9091 1.3257 -0.0146 0.484
2.9065 1.3553 -0.0146 0.494
2.9045 1.3853 -0.0147 0.488
2.8995 1.4141 -0.0147 0.492
2.8987 1.4452 -0.0147 0.492
2.8958 1.4754 -0.0148 0.486
2.8917 1.5052 -0.0148 0.469
2.8881 1.5356 -0.0149 0.477
2.8843 1.5660 -0.0149 0.475
2.8810 1.5969 -0.0150 0.475
2.8765 1.6274 -0.0150 0.477
0.0777 -0.0390 0.0037 0.127
0.0690 -0.0340 0.0033 0.189
0.0738 -0.0355 0.0035 0.172
0.0705 -0.0332 0.0033 0.174
0.0690 -0.0317 0.0032 0.174
0.0793 -0.0356 0.0037 0.145
0.0686 -0.0301 0.0032 0.146
0.0744 -0.0319 0.0034 0.209
0.0774 -0.0324 0.0035 0.219
0.0777 -0.0317 0.0035 0.199
0.0854 -0.0340 0.0039 0.205
0.0717 -0.0278 0.0033 0.223
0.0701 -0.0265 0.0032 0.193
0.0741 -0.0272 0.0033 0.225
0.0734 -0.0263 0.0033 0.188
0.0840 -0.0292 0.0038 0.221
0.0757 -0.0256 0.0034 0.223
0.0683 -0.0225 0.0030 0.219
0.0714 -0.0228 0.0032 0.213
0.0811 -0.0251 0.0036 0.223
0.0813 -0.0244 0.0036 0.240
0.0864 -0.0251 0.0038 0.191
0.0731 -0.0205 0.0032 0.238
0.0675 -0.0183 0.0030 0.188
0.0792 -0.0208 0.0035 0.268
0.0717 -0.0181 0.0031 0.201
0.0699 -0.0170 0.0030 0.230
0.0632 -0.0148 0.0027 0.215
0.0809 -0.0182 0.0035 0.223
0.0742 -0.0160 0.0032 0.232
0.0773 -0.0160 0.0033 0.217
0.0764 -0.0151 0.0033 0.189
0.0746 -0.0141 0.0032 0.203
0.0629 -0.0113 0.0027 0.143
0.0886 -0.0151 0.0038 0.184
0.0690 -0.0112 0.0030 0.197
0.0830 -0.0127 0.0035 0.197
0.0752 -0.0108 0.0032 0.199
0.0802 -0.0108 0.0034 0.170
0.0843 -0.0106 0.0036 0.156
0.0705 -0.0083 0.0030 0.131
0.0646 -0.0070 0.0027 0.150
0.0636 -0.0063 0.0027 0.139
0.0806 -0.0073 0.0034 0.158
0.0767 -0.0063 0.0033 0.154
0.0807 -0.0059 0.0034 0.150
3.0848 -0.1988 0.1307 0.480
0.0658 -0.0037 0.0028 0.125
0.0858 -0.0040 0.0036 0.141
0.0779 -0.0030 0.0033 0.135
1.7786 -0.0524 0.0752 0.480
1.7780 -0.0369 0.0752 0.543
0.0799 -0.0010 0.0034 0.154
0.0769 -0.0003 0.0033 0.131
0.0729 0.0004 0.0031 0.197
0.0789 0.0011 0.0033 0.166
0.0829 0.0019 0.0035 0.193
3.0577 0.0967 0.1293 0.480
0.0759 0.0031 0.0032 0.182
0.0758 0.0037 0.0032 0.146
3.2216 -1.6195 0.1524 0.490
3.2141 -1.5807 0.1514 0.490
3.2116 -1.5448 0.1506 0.492
3.2042 -1.5069 0.1497 0.490
3.2036 -1.4727 0.1490 0.473
3.2026 -1.4385 0.1484 0.480
3.1986 -1.4033 0.1476 0.488
3.1969 -1.3694 0.1470 0.480
3.1940 -1.3353 0.1463 0.480
3.1935 -1.3025 0.1458 0.480
3.1853 -1.2668 0.1449 0.482
3.1822 -1.2335 0.1442 0.486
3.1779 -1.2001 0.1436 0.484
3.1798 -1.1692 0.1432 0.490
3.1758 -1.1364 0.1426 0.482
3.1714 -1.1037 0.1419 0.482
3.1658 -1.0708 0.1413 0.469
3.1655 -1.0400 0.1408 0.482
1.8590 -0.5929 0.0825 0.465
1.8469 -0.5713 0.0817 0.480
1.8461 -0.5534 0.0815 0.502
1.8547 -0.5384 0.0816 0.500
1.8690 -0.5249 0.0820 0.430
3.1443 -0.8536 0.1377 0.488
3.1478 -0.8251 0.1375 0.482
3.1442 -0.7949 0.1371 0.477
3.1432 -0.7655 0.1367 0.473
3.1391 -0.7356 0.1363 0.479
3.1308 -0.7049 0.1356 0.480
3.1290 -0.6758 0.1353 0.494
3.1279 -0.6471 0.1350 0.482
3.1256 -0.6182 0.1347 0.473
3.1211 -0.5891 0.1342 0.473
2.7750 -0.4987 0.1192 0.453
2.7714 -0.4731 0.1188 0.498
2.7833 -0.4502 0.1192 0.469
3.1101 -0.4752 0.1330 0.467
3.1082 -0.4472 0.1327 0.469
3.1080 -0.4196 0.1326 0.471
3.1016 -0.3912 0.1321 0.469
3.1030 -0.3639 0.1320 0.465
3.0961 -0.3357 0.1316 0.467
3.0969 -0.3085 0.1315 0.469
3.0905 -0.2806 0.1312 0.465
3.0889 -0.2533 0.1310 0.473
3.0870 -0.2260 0.1308 0.473
3.0815 -0.1716 0.1304 0.475
3.0799 -0.1446 0.1303 0.469
3.0810 -0.1177 0.1303 0.451
1.7713 -0.0213 0.0749 0.482
2.3759 -0.0078 0.1004 0.492
3.0672 0.0167 0.1296 0.471
3.0620 0.0434 0.1294 0.463
3.0625 0.0701 0.1295 0.471
3.0528 0.1233 0.1291 0.459
3.0526 0.1499 0.1292 0.469
3.1588 -0.8872 0.1387 0.432
0.0823 0.0033 0.0106 0.240
0.0951 0.0047 0.0122 0.246
0.0980 0.0057 0.0126 0.238
0.0920 0.0062 0.0118 0.281
0.1009 0.0076 0.0130 0.234
0.0949 0.0080 0.0122 0.230
0.0938 0.0087 0.0121 0.295
0.0799 0.0082 0.0103 0.246
0.0927 0.0103 0.0120 0.244
0.0906 0.0108 0.0117 0.275
0.0915 0.0118 0.0118 0.252
0.0845 0.0116 0.0109 0.258
0.0854 0.0125 0.0111 0.211
0.0843 0.0131 0.0109 0.240
0.0861 0.0141 0.0112 0.209
0.0811 0.0140 0.0106 0.266
0.0849 0.0155 0.0111 0.270
0.0896 0.0171 0.0117 0.201
0.0856 0.0171 0.0112 0.289
0.0845 0.0177 0.0111 0.203
0.1008 0.0220 0.0132 0.188
0.0919 0.0209 0.0121 0.258
0.0946 0.0224 0.0125 0.201
0.0799 0.0197 0.0106 0.211
0.0836 0.0214 0.0111 0.242
0.0805 0.0213 0.0107 0.270
0.0985 0.0270 0.0131 0.186
2.9754 0.8434 0.3968 0.488
0.0933 0.0273 0.0125 0.211
0.0750 0.0227 0.0101 0.205
0.0890 0.0278 0.0120 0.152
0.0897 0.0288 0.0121 0.189
0.0781 0.0259 0.0106 0.156
0.0892 0.0304 0.0121 0.217
0.0917 0.0322 0.0125 0.168
0.0970 0.0350 0.0132 0.148
0.0837 0.0310 0.0115 0.145
2.9453 1.1203 0.4043 0.482
0.0998 0.0390 0.0137 0.127
2.9317 1.1742 0.4052 0.500
0.0835 0.0343 0.0116 0.162
0.0960 0.0404 0.0134 0.133
2.9219 1.2599 0.4082 0.488
0.0916 0.0405 0.0129 0.164
2.9121 1.3164 0.4100 0.500
2.9131 1.3476 0.4118 0.488
0.0932 0.0441 0.0132 0.170
0.0857 0.0415 0.0122 0.148
0.0871 0.0431 0.0125 0.152
0.0867 0.0439 0.0125 0.219
0.0784 0.0405 0.0113 0.129
0.0807 0.0426 0.0117 0.180
0.0786 0.0424 0.0115 0.236
0.0808 0.0445 0.0118 0.188
0.0770 0.0432 0.0113 0.184
0.0757 0.0434 0.0112 0.215
0.0745 0.0436 0.0111 0.205
0.0758 0.0452 0.0113 0.217
0.0737 0.0449 0.0111 0.207
0.0733 0.0455 0.0111 0.268
3.0534 0.1240 0.3921 0.482
3.0552 0.1508 0.3924 0.475
3.0488 0.1772 0.3918 0.486
3.0452 0.2036 0.3916 0.479
3.0393 0.2299 0.3910 0.488
3.0392 0.2566 0.3913 0.482
3.0349 0.2829 0.3910 0.477
3.0313 0.3093 0.3909 0.484
3.0295 0.3358 0.3910 0.471
3.0244 0.3620 0.3908 0.475
3.0261 0.3890 0.3914 0.484
3.0226 0.4154 0.3914 0.484
3.0179 0.4417 0.3913 0.492
3.0168 0.4684 0.3917 0.475
3.0097 0.4943 0.3913 0.480
3.0092 0.5212 0.3918 0.484
3.0016 0.5469 0.3914 0.471
3.0035 0.5744 0.3923 0.482
2.9964 0.6002 0.3921 0.477
2.9921 0.6265 0.3922 0.480
2.9933 0.6541 0.3931 0.482
2.9923 0.6813 0.3937 0.477
2.9872 0.7076 0.3938 0.482
2.9838 0.7343 0.3942 0.482
2.9801 0.7611 0.3946 0.488
2.9791 0.7886 0.3954 0.480
2.9750 0.8153 0.3958 0.475
2.9708 0.8702 0.3972 0.494
2.9669 0.8972 0.3977 0.494
2.9618 0.9240 0.3980 0.488
2.9612 0.9522 0.3991 0.482
2.9584 0.9799 0.3998 0.488
2.9563 1.0079 0.4007 0.484
2.9511 1.0350 0.4012 0.482
2.9485 1.0630 0.4021 0.500
2.9447 1.0908 0.4029 0.506
2.9391 1.1474 0.4048 0.486
2.9296 1.2031 0.4063 0.484
2.9263 1.2317 0.4073 0.492
2.9207 1.2898 0.4096 0.500
2.9129 1.3785 0.4134 0.486
2.9034 1.4052 0.4138 0.482
2.9026 1.4362 0.4155 0.475
2.9006 1.4668 0.4170 0.484
2.8973 1.4971 0.4184 0.475
2.8921 1.5265 0.4196 0.482
2.8891 1.5573 0.4211 0.473
2.8893 1.5901 0.4231 0.490
2.8771 1.6162 0.4234 0.471
2.8783 1.6502 0.4257 0.488
2.8741 1.6812 0.4272 0.480
2.8712 1.7134 0.4290 0.482
2.8672 1.7451 0.4306 0.494
2.8653 1.7784 0.4327 0.502
3.2242 -1.6391 0.7939 0.512
3.2226 -1.6030 0.7900 0.514
0.0738 -0.0359 0.0180 0.154
0.0794 -0.0378 0.0193 0.129
3.2139 -1.4950 0.7780 0.514
0.0774 -0.0352 0.0187 0.137
0.0643 -0.0285 0.0154 0.129
3.2044 -1.3898 0.7667 0.521
0.0810 -0.0343 0.0193 0.143
3.2011 -1.3225 0.7602 0.506
0.0689 -0.0277 0.0163 0.156
0.0755 -0.0296 0.0178 0.133
0.0648 -0.0248 0.0152 0.160
0.0723 -0.0270 0.0169 0.178
0.0744 -0.0270 0.0174 0.184
0.0718 -0.0254 0.0167 0.148
0.0748 -0.0257 0.0174 0.180
0.0732 -0.0244 0.0169 0.215
0.0697 -0.0226 0.0161 0.176
0.0811 -0.0255 0.0187 0.164
0.0719 -0.0219 0.0165 0.199
0.0815 -0.0241 0.0187 0.154
0.0751 -0.0215 0.0172 0.127
0.0772 -0.0213 0.0176 0.154
3.1576 -0.8430 0.7174 0.504
0.0605 -0.0156 0.0137 0.125
0.0749 -0.0186 0.0169 0.166
0.0750 -0.0179 0.0169 0.135
0.0695 -0.0160 0.0157 0.148
0.1202 -0.0265 0.0270 0.158
0.0736 -0.0156 0.0165 0.162
0.0622 -0.0126 0.0139 0.150
0.0777 -0.0150 0.0174 0.143
0.0653 -0.0120 0.0146 0.168
0.0779 -0.0137 0.0174 0.123
0.0674 -0.0112 0.0150 0.135
0.0743 -0.0117 0.0165 0.164
0.0763 -0.0113 0.0169 0.133
3.1111 -0.4343 0.6895 0.422
1.4014 -0.1832 0.3102 0.186
0.0756 -0.0092 0.0167 0.166
1.3976 -0.1579 0.3087 0.459
0.0719 -0.0075 0.0159 0.131
0.0768 -0.0073 0.0169 0.115
0.0720 -0.0062 0.0159 0.160
0.0740 -0.0058 0.0163 0.123
1.6380 -0.1130 0.3604 0.510
1.7189 -0.1035 0.3780 0.592
0.0800 -0.0041 0.0176 0.123
1.7556 -0.0750 0.3857 0.516
1.7679 -0.0601 0.3883 0.490
1.8220 -0.0460 0.4001 0.516
0.0869 -0.0014 0.0191 0.125
3.0718 -0.0240 0.6743 0.484
0.0693 0.0001 0.0152 0.137
3.0707 0.0296 0.6741 0.496
3.0635 0.0563 0.6726 0.473
3.0610 0.0830 0.6721 0.490
0.0703 0.0025 0.0154 0.129
0.0781 0.0035 0.0172 0.137
3.2216 -1.5676 0.7864 0.500
3.2192 -1.5318 0.7825 0.508
3.2099 -1.4593 0.7740 0.512
3.2083 -1.4249 0.7705 0.531
3.2057 -1.3572 0.7641 0.516
3.1953 -1.2876 0.7562 0.510
3.1946 -1.2550 0.7534 0.502
3.1890 -1.2208 0.7495 0.510
3.1922 -1.1902 0.7478 0.504
3.1823 -1.1549 0.7431 0.504
3.1831 -1.1239 0.7410 0.494
3.1807 -1.0919 0.7382 0.514
3.1762 -1.0595 0.7350 0.506
3.1724 -1.0275 0.7319 0.508
3.1719 -0.9969 0.7298 0.510
3.1646 -0.9643 0.7262 0.508
3.1673 -0.9350 0.7249 0.521
3.1640 -0.9041 0.7223 0.508
3.1605 -0.8733 0.7197 0.525
3.1516 -0.8120 0.7144 0.502
3.1500 -0.7823 0.7124 0.504
3.1434 -0.7516 0.7094 0.500
3.1432 -0.7226 0.7079 0.506
3.1380 -0.6926 0.7054 0.492
3.1372 -0.6638 0.7039 0.482
3.1343 -0.6347 0.7019 0.486
3.1330 -0.6060 0.7004 0.498
3.1285 -0.5768 0.6983 0.508
3.1306 -0.5490 0.6976 0.500
3.1275 -0.5204 0.6959 0.508
3.1194 -0.4911 0.6931 0.500
3.1197 -0.4633 0.6923 0.500
1.3952 -0.1700 0.3085 0.383
1.4446 -0.1505 0.3188 0.492
1.5664 -0.1494 0.3454 0.654
1.6309 -0.1412 0.3593 0.512
1.6350 -0.1272 0.3600 0.520
1.7431 -0.0897 0.3831 0.506
3.0904 -0.0781 0.6786 0.154
3.0754 -0.0508 0.6751 0.469
3.0719 0.0028 0.6743 0.480
3.0582 0.1096 0.6717 0.498
3.0581 0.1364 0.6719 0.492
3.0754 -0.0508 0.6751 0.469
3.2142 -1.4135 1.0949 0.561
3.2089 -1.3778 1.0889 0.563
3.2093 -1.3450 1.0850 0.563
0.0725 -0.0296 0.0244 0.127
3.2022 -1.2768 1.0749 0.563
0.0774 -0.0301 0.0259 0.133
3.1963 -1.2102 1.0657 0.580
0.0806 -0.0297 0.0268 0.141
3.1917 -1.1452 1.0574 0.570
0.0766 -0.0267 0.0253 0.148
0.0759 -0.0258 0.0250 0.117
0.0725 -0.0239 0.0238 0.158
3.1807 -1.0174 1.0413 0.553
0.0857 -0.0266 0.0280 0.193
0.0832 -0.0250 0.0271 0.145
0.0706 -0.0206 0.0229 0.156
0.0855 -0.0241 0.0277 0.158
0.0783 -0.0213 0.0253 0.164
0.0803 -0.0211 0.0259 0.125
0.0722 -0.0183 0.0232 0.170
0.0779 -0.0190 0.0250 0.162
0.0725 -0.0171 0.0232 0.186
0.0661 -0.0149 0.0211 0.203
0.0793 -0.0172 0.0253 0.133
1.0300 -0.2140 0.3280 0.580
0.0899 -0.0179 0.0286 0.143
0.0844 -0.0160 0.0268 0.201
0.9160 -0.1654 0.2902 0.184
0.0894 -0.0153 0.0283 0.127
0.0773 -0.0126 0.0244 0.193
0.0868 -0.0133 0.0274 0.170
0.0869 -0.0126 0.0274 0.121
0.0842 -0.0114 0.0265 0.150
0.0739 -0.0094 0.0232 0.117
0.0929 -0.0110 0.0292 0.127
0.0902 -0.0099 0.0283 0.150
0.0769 -0.0077 0.0241 0.141
0.0751 -0.0069 0.0235 0.133
0.0856 -0.0071 0.0268 0.150
0.0733 -0.0054 0.0229 0.121
1.7757 -0.1160 0.5549 0.578
1.7643 -0.0998 0.5510 0.590
0.0944 -0.0045 0.0295 0.131
0.0725 -0.0028 0.0226 0.131
1.8502 -0.0561 0.5772 0.520
1.8497 -0.0400 0.5769 0.504
1.8538 -0.0239 0.5781 0.469
3.0377 -0.0126 0.9472 0.373
0.0840 0.0004 0.0262 0.152
3.0776 0.0409 0.9597 0.551
0.0859 0.0019 0.0268 0.133
3.0688 0.0944 0.9573 0.551
3.0650 0.1211 0.9564 0.555
3.0619 0.1477 0.9558 0.555
0.0810 0.0046 0.0253 0.129
3.0617 0.2013 0.9567 0.553
0.0781 0.0058 0.0244 0.127
0.0885 0.0074 0.0277 0.156
3.0506 0.2810 0.9553 0.545
0.0864 0.0087 0.0271 0.168
3.2059 -1.3108 1.0800 0.568
3.2007 -1.2439 1.0708 0.561
3.1951 -1.1780 1.0618 0.570
3.1908 -1.1135 1.0538 0.563
3.1832 -1.0798 1.0481 0.572
3.1825 -1.0487 1.0449 0.566
3.1794 -0.9865 1.0380 0.561
3.1769 -0.9554 1.0344 0.551
3.1705 -0.9234 1.0297 0.553
3.1692 -0.8931 1.0267 0.547
3.1686 -0.8631 1.0240 0.563
3.1622 -0.8318 1.0195 0.551
3.1600 -0.8018 1.0166 0.564
3.1576 -0.7720 1.0136 0.572
3.1512 -0.7413 1.0094 0.543
3.1492 -0.7119 1.0067 0.426
1.0328 -0.2240 0.3295 0.549
1.0291 -0.2045 0.3271 0.576
0.9961 -0.1889 0.3161 0.492
0.9921 -0.1792 0.3143 0.531
1.0040 -0.1723 0.3176 0.543
1.0082 -0.1640 0.3185 0.578
1.0295 -0.1582 0.3248 0.582
1.0346 -0.1498 0.3260 0.590
1.0387 -0.1411 0.3269 0.588
1.0579 -0.1344 0.3325 0.584
1.1785 -0.1392 0.3700 0.600
1.2128 -0.1326 0.3804 0.568
1.2424 -0.1248 0.3894 0.559
3.1078 -0.2849 0.9731 0.553
3.1101 -0.2578 0.9731 0.545
1.8099 -0.1341 0.5659 0.225
1.7822 -0.0852 0.5564 0.594
1.8440 -0.0721 0.5754 0.496
3.0955 -0.0939 0.9657 0.541
3.0905 -0.0668 0.9639 0.541
3.0881 -0.0398 0.9630 0.537
3.0797 -0.0128 0.9603 0.549
3.0377 0.0139 0.9472 0.365
3.0714 0.0677 0.9579 0.553
3.0614 0.1745 0.9561 0.555
3.0579 0.2279 0.9561 0.561
3.0549 0.2545 0.9558 0.564
3.0490 0.3077 0.9555 0.551
3.1218 -0.2313 0.9761 0.137
3.0927 -0.1209 0.9651 0.527
3.0778 0.0141 0.9597 0.531
0.7546 -0.1700 0.3196 0.490
0.7597 -0.1642 0.3212 0.506
0.7738 -0.1602 0.3265 0.482
0.7888 -0.1561 0.3322 0.463
0.8246 -0.1558 0.3468 0.447
0.8669 -0.1559 0.3639 0.258
0.8591 -0.1468 0.3601 0.320
0.8649 -0.1400 0.3620 0.295
0.8798 -0.1346 0.3678 0.254
0.8763 -0.1263 0.3658 0.270
0.0751 -0.0102 0.0313 0.203
0.0669 -0.0085 0.0279 0.232
0.0753 -0.0088 0.0313 0.201
0.0772 -0.0084 0.0321 0.166
0.0708 -0.0071 0.0294 0.230
0.0727 -0.0066 0.0302 0.193
0.0801 -0.0066 0.0332 0.158
0.0701 -0.0051 0.0290 0.209
0.0682 -0.0044 0.0283 0.137
0.0747 -0.0042 0.0309 0.225
0.0711 -0.0033 0.0294 0.162
0.0767 -0.0029 0.0317 0.154
0.0776 -0.0023 0.0321 0.182
0.0758 -0.0016 0.0313 0.211
0.0749 -0.0009 0.0309 0.215
0.0702 -0.0002 0.0290 0.232
0.0684 0.0004 0.0283 0.184
0.0721 0.0010 0.0298 0.203
3.0639 0.0696 1.2663 0.506
0.0693 0.0022 0.0286 0.188
0.0665 0.0027 0.0275 0.174
0.0711 0.0035 0.0294 0.219
0.0674 0.0039 0.0279 0.213
0.0747 0.0050 0.0309 0.180
0.0691 0.0052 0.0286 0.219
0.0663 0.0056 0.0275 0.191
0.0727 0.0067 0.0302 0.174
0.0690 0.0070 0.0286 0.193
0.0689 0.0076 0.0286 0.213
0.0670 0.0080 0.0279 0.201
0.0770 0.0099 0.0321 0.195
0.0778 0.0107 0.0325 0.205
0.0668 0.0097 0.0279 0.242
0.0749 0.0116 0.0313 0.215
0.0675 0.0111 0.0283 0.205
0.0692 0.0120 0.0290 0.199
0.0755 0.0137 0.0317 0.195
0.0690 0.0132 0.0290 0.172
0.0698 0.0139 0.0294 0.234
0.0742 0.0155 0.0313 0.223
0.0623 0.0136 0.0264 0.219
0.0586 0.0133 0.0248 0.205
0.0675 0.0159 0.0286 0.236
0.0664 0.0163 0.0283 0.244
0.0645 0.0164 0.0275 0.217
0.0724 0.0191 0.0309 0.238
0.0713 0.0195 0.0306 0.230
0.0685 0.0194 0.0294 0.271
0.0648 0.0189 0.0279 0.252
0.0734 0.0222 0.0317 0.273
0.7546 -0.1700 0.3196 0.490
0.7597 -0.1642 0.3212 0.506
0.7738 -0.1602 0.3265 0.482
0.7888 -0.1561 0.3322 0.463
0.8473 -0.1601 0.3563 0.541
0.8951 -0.1610 0.3758 0.379
0.8882 -0.1518 0.3723 0.451
0.8959 -0.1451 0.3750 0.430
0.9099 -0.1392 0.3804 0.395
0.9111 -0.1313 0.3804 0.420
0.9369 -0.1266 0.3907 0.424
0.9343 -0.1180 0.3891 0.451
0.9491 -0.1115 0.3949 0.275
3.1092 -0.3377 1.2923 0.504
3.1020 -0.3095 1.2881 0.504
3.0972 -0.2818 1.2851 0.508
3.0967 -0.2545 1.2839 0.514
3.0896 -0.2268 1.2801 0.512
3.0915 -0.1998 1.2801 0.510
3.0839 -0.1723 1.2763 0.512
3.0834 -0.1453 1.2755 0.514
3.0800 -0.1182 1.2736 0.521
3.0809 -0.0913 1.2736 0.514
3.0751 -0.0643 1.2709 0.496
3.0746 -0.0375 1.2705 0.510
3.0693 -0.0106 1.2683 0.508
3.0693 0.0162 1.2683 0.502
3.0653 0.0429 1.2667 0.502
3.0613 0.0963 1.2656 0.504
3.0567 0.1229 1.2641 0.502
3.0555 0.1495 1.2641 0.496
3.0504 0.1760 1.2625 0.492
3.0487 0.2026 1.2625 0.506
3.0450 0.2291 1.2618 0.496
3.0456 0.2559 1.2629 0.502
3.0396 0.2821 1.2614 0.494
3.0370 0.3086 1.2614 0.494
3.0333 0.3350 1.2610 0.490
3.0284 0.3612 1.2602 0.502
3.0288 0.3881 1.2618 0.500
3.0299 0.4152 1.2637 0.502
3.0225 0.4410 1.2621 0.496
3.0204 0.4677 1.2629 0.496
3.0143 0.4937 1.2621 0.502
3.0127 0.5205 1.2633 0.498
3.0116 0.5474 1.2648 0.496
3.0067 0.5737 1.2648 0.498
3.0025 0.6001 1.2652 0.504
3.0053 0.6280 1.2686 0.502
2.9997 0.6542 1.2686 0.504
2.9984 0.6813 1.2705 0.504
2.9932 0.7077 1.2709 0.506
2.9888 0.7342 1.2717 0.504
2.9903 0.7623 1.2751 0.508
2.9889 0.7898 1.2774 0.504
2.9837 0.8163 1.2782 0.498
2.9791 0.8431 1.2793 0.500
2.9796 0.8714 1.2828 0.494
2.9807 0.9001 1.2866 0.496
3.1117 -0.3654 1.2946 0.479
0.0757 0.0236 -0.0105 0.230
0.0746 0.0240 -0.0103 0.174
0.0809 0.0268 -0.0113 0.238
0.0751 0.0256 -0.0105 0.176
0.0608 0.0213 -0.0085 0.229
0.0811 0.0293 -0.0114 0.160
0.0772 0.0286 -0.0109 0.143
0.0723 0.0275 -0.0102 0.176
0.0665 0.0260 -0.0094 0.152
2.9375 1.1771 -0.4177 0.543
0.0844 0.0347 -0.0120 0.150
2.9320 1.2347 -0.4199 0.525
0.0619 0.0267 -0.0089 0.137
2.9237 1.2917 -0.4219 0.529
0.0668 0.0302 -0.0097 0.158
2.9133 1.3483 -0.4237 0.529
2.9139 1.3796 -0.4256 0.539
2.9125 1.4102 -0.4271 0.533
2.9072 1.4391 -0.4282 0.527
2.9025 1.4684 -0.4294 0.527
2.8975 1.4978 -0.4305 0.520
2.8931 1.5277 -0.4318 0.523
2.8910 1.5590 -0.4335 0.525
2.8825 1.5870 -0.4343 0.510
2.8815 1.6194 -0.4363 0.516
2.8784 1.6509 -0.4380 0.523
2.8784 1.6844 -0.4402 0.539
2.8704 1.7136 -0.4413 0.527
2.8681 1.7463 -0.4432 0.525
2.8662 1.7796 -0.4453 0.533
2.8589 1.8099 -0.4466 0.527
2.8539 1.8417 -0.4483 0.537
2.8509 1.8753 -0.4504 0.525
2.8501 1.9106 -0.4529 0.531
2.8481 1.9454 -0.4553 0.518
2.8383 1.9753 -0.4564 0.520
2.8323 2.0080 -0.4583 0.516
2.8307 2.0443 -0.4609 0.518
2.8232 2.0765 -0.4626 0.529
2.8216 2.1136 -0.4653 0.537
2.8164 2.1483 -0.4676 0.533
2.8101 2.1826 -0.4697 0.535
2.8112 2.2230 -0.4731 0.551
2.8033 2.2568 -0.4750 0.539
2.7973 2.2925 -0.4774 0.525
2.7916 2.3289 -0.4799 0.520
2.7863 2.3660 -0.4825 0.512
2.7843 2.4064 -0.4858 0.531
2.7788 2.4443 -0.4885 0.529
2.7736 2.4831 -0.4914 0.549
2.7680 2.5218 -0.4943 0.533
2.7640 2.5628 -0.4975 0.533
2.7603 2.6045 -0.5009 0.525
2.7568 2.6470 -0.5045 0.525
2.7485 2.6855 -0.5072 0.523
2.7439 2.7283 -0.5108 0.520
2.7374 2.7697 -0.5140 0.527
2.7353 2.8163 -0.5182 0.537
2.7284 2.8587 -0.5216 0.547
2.7237 2.9041 -0.5255 0.525
2.9640 0.9252 -0.4099 0.514
2.9577 0.9517 -0.4101 0.523
2.9568 0.9799 -0.4112 0.500
2.9538 1.0076 -0.4120 0.504
2.9514 1.0357 -0.4129 0.510
2.9479 1.0634 -0.4137 0.516
2.9431 1.0908 -0.4143 0.523
2.9409 1.1193 -0.4154 0.508
2.9430 1.1496 -0.4171 0.508
2.9308 1.2042 -0.4182 0.539
2.9257 1.2622 -0.4206 0.539
2.9177 1.3196 -0.4227 0.541
0.0715 0.0080 -0.0033 0.203
0.0724 0.0088 -0.0034 0.154
0.0733 0.0095 -0.0034 0.174
0.0772 0.0107 -0.0036 0.209
0.0672 0.0099 -0.0032 0.168
0.0730 0.0115 -0.0034 0.150
0.0798 0.0132 -0.0038 0.156
0.0738 0.0129 -0.0035 0.174
0.0766 0.0141 -0.0036 0.154
3.0004 0.5788 -0.1418 0.480
0.0803 0.0162 -0.0038 0.123
2.9996 0.6332 -0.1422 0.498
2.9920 0.6589 -0.1421 0.490
0.0711 0.0163 -0.0034 0.113
2.9888 0.7131 -0.1425 0.480
2.9854 0.7399 -0.1427 0.482
2.9846 0.7674 -0.1430 0.496
2.9826 0.7947 -0.1432 0.494
2.9794 0.8217 -0.1434 0.500
2.9750 0.8485 -0.1435 0.492
2.9694 0.8750 -0.1436 0.488
2.9674 0.9026 -0.1439 0.496
2.9651 0.9303 -0.1442 0.484
2.9588 0.9568 -0.1443 0.484
2.9589 0.9854 -0.1447 0.488
2.9540 1.0125 -0.1449 0.486
2.9497 1.0399 -0.1451 0.480
2.9471 1.0679 -0.1454 0.488
2.9442 1.0961 -0.1457 0.486
2.9439 1.1253 -0.1462 0.484
2.9405 1.1535 -0.1465 0.492
2.9358 1.1813 -0.1468 0.486
2.9310 1.2092 -0.1471 0.500
2.9323 1.2398 -0.1477 0.506
2.9277 1.2681 -0.1480 0.512
2.9266 1.2981 -0.1485 0.518
2.9243 1.3277 -0.1490 0.502
2.9153 1.3544 -0.1491 0.516
2.9151 1.3854 -0.1497 0.502
2.9146 1.4164 -0.1503 0.500
2.9101 1.4458 -0.1507 0.496
2.9081 1.4766 -0.1513 0.500
2.9040 1.5065 -0.1518 0.500
2.8995 1.5365 -0.1522 0.510
2.8983 1.5684 -0.1529 0.498
2.8924 1.5979 -0.1533 0.484
2.8897 1.6295 -0.1539 0.492
2.8840 1.6596 -0.1544 0.490
2.8832 1.6928 -0.1551 0.490
2.8751 1.7220 -0.1555 0.500
2.8745 1.7559 -0.1563 0.512
2.8701 1.7878 -0.1569 0.514
2.8704 1.8229 -0.1577 0.506
2.8603 1.8517 -0.1581 0.508
2.8582 1.8860 -0.1589 0.492
2.8573 1.9214 -0.1597 0.504
2.8528 1.9548 -0.1604 0.498
2.8471 1.9876 -0.1611 0.502
2.8435 2.0222 -0.1619 0.500
2.8379 2.0557 -0.1626 0.498
3.0256 0.3404 -0.1412 0.484
3.0245 0.3670 -0.1413 0.492
3.0202 0.3933 -0.1413 0.484
3.0187 0.4199 -0.1414 0.500
3.0099 0.4455 -0.1412 0.492
3.0099 0.4724 -0.1413 0.486
3.0047 0.4984 -0.1413 0.475
3.0081 0.5260 -0.1417 0.506
3.0034 0.5523 -0.1417 0.492
2.9982 0.6056 -0.1419 0.484
2.9930 0.6865 -0.1424 0.482
0.0580 0.0335 -0.0003 0.244
0.0663 0.0391 -0.0004 0.209
0.0626 0.0376 -0.0003 0.234
0.0682 0.0418 -0.0004 0.250
0.0568 0.0355 -0.0003 0.250
0.0658 0.0419 -0.0004 0.234
0.0671 0.0436 -0.0004 0.217
0.0584 0.0386 -0.0003 0.215
0.0680 0.0459 -0.0004 0.184
0.0618 0.0425 -0.0003 0.234
0.0614 0.0430 -0.0003 0.168
0.0659 0.0470 -0.0004 0.221
0.0591 0.0429 -0.0003 0.152
0.0651 0.0482 -0.0004 0.207
0.0591 0.0445 -0.0003 0.211
0.0643 0.0493 -0.0004 0.186
0.0544 0.0425 -0.0003 0.199
0.0618 0.0492 -0.0004 0.215
0.0622 0.0503 -0.0004 0.193
0.0571 0.0471 -0.0003 0.176
0.0575 0.0482 -0.0003 0.201
0.0593 0.0507 -0.0004 0.197
0.0536 0.0466 -0.0003 0.170
0.0427 0.0378 -0.0003 0.162
0.0476 0.0428 -0.0003 0.164
0.0479 0.0439 -0.0003 0.164
0.0527 0.0491 -0.0003 0.174
0.0624 0.0592 -0.0004 0.143
0.0511 0.0493 -0.0003 0.156
0.0571 0.0561 -0.0004 0.186
0.0537 0.0537 -0.0003 0.189
0.0617 0.0628 -0.0004 0.146
2.7273 2.8241 -0.0179 0.488
0.0523 0.0551 -0.0003 0.160
2.7151 2.9114 -0.0181 0.480
0.0520 0.0568 -0.0004 0.148
0.0529 0.0587 -0.0004 0.152
0.0470 0.0532 -0.0003 0.164
2.6951 3.1003 -0.0187 0.502
0.0526 0.0616 -0.0004 0.148
0.0418 0.0498 -0.0003 0.121
2.6773 3.2477 -0.0192 0.494
0.0459 0.0567 -0.0003 0.146
0.0529 0.0665 -0.0004 0.127
2.6578 3.4018 -0.0197 0.490
2.6536 3.4581 -0.0198 0.490
0.0487 0.0647 -0.0004 0.145
2.6381 3.5650 -0.0202 0.494
2.6327 3.6235 -0.0204 0.477
2.6237 3.6781 -0.0206 0.469
0.0436 0.0623 -0.0003 0.121
2.6134 3.8024 -0.0210 0.473
2.6064 3.8641 -0.0212 0.492
2.6019 3.9309 -0.0215 0.484
2.5920 3.9911 -0.0217 0.486
2.5834 4.0549 -0.0219 0.465
2.5786 4.1265 -0.0222 0.488
2.5697 4.1932 -0.0224 0.475
0.0366 0.0609 -0.0003 0.158
2.5514 4.3313 -0.0229 0.486
2.8691 1.6564 -0.0151 0.467
2.8718 1.6916 -0.0152 0.488
2.8681 1.7232 -0.0152 0.486
2.8640 1.7550 -0.0153 0.488
2.8579 1.7858 -0.0153 0.482
2.8549 1.8187 -0.0154 0.486
2.8506 1.8512 -0.0155 0.484
2.8452 1.8831 -0.0155 0.479
2.8453 1.9191 -0.0156 0.480
2.8383 1.9506 -0.0157 0.484
2.8351 1.9851 -0.0158 0.482
2.8299 2.0185 -0.0158 0.477
2.8259 2.0531 -0.0159 0.477
2.8183 2.0854 -0.0160 0.477
2.8112 2.1183 -0.0160 0.473
2.8109 2.1568 -0.0161 0.480
2.8038 2.1905 -0.0162 0.486
2.8017 2.2285 -0.0163 0.490
2.7946 2.2630 -0.0164 0.486
2.7925 2.3019 -0.0165 0.502
2.7869 2.3384 -0.0166 0.488
2.7801 2.3743 -0.0166 0.484
2.7751 2.4123 -0.0167 0.490
2.7704 2.4510 -0.0168 0.482
2.7660 2.4904 -0.0169 0.482
2.7633 2.5320 -0.0171 0.488
2.7580 2.5717 -0.0172 0.473
2.7564 2.6157 -0.0173 0.486
2.7472 2.6528 -0.0174 0.469
2.7425 2.6949 -0.0175 0.486
2.7379 2.7378 -0.0176 0.475
2.7315 2.7795 -0.0177 0.475
2.7211 2.8673 -0.0180 0.492
2.7091 2.9564 -0.0183 0.486
2.7047 3.0037 -0.0184 0.480
2.6962 3.0474 -0.0185 0.473
2.6861 3.1450 -0.0188 0.494
2.6817 3.1959 -0.0190 0.480
2.6702 3.2973 -0.0193 0.479
2.6644 3.3495 -0.0195 0.506
2.6450 3.5099 -0.0200 0.492
2.6184 3.7393 -0.0208 0.477
2.5608 4.2617 -0.0226 0.473
0.0828 0.0048 0.0035 0.156
0.0847 0.0056 0.0036 0.209
0.0777 0.0059 0.0033 0.203
0.0836 0.0070 0.0035 0.168
0.0746 0.0069 0.0032 0.127
0.0875 0.0089 0.0037 0.164
0.0894 0.0099 0.0038 0.152
0.0794 0.0095 0.0034 0.156
3.0235 0.3880 0.1288 0.469
0.0742 0.0102 0.0032 0.133
3.0232 0.4417 0.1291 0.473
0.0691 0.0107 0.0030 0.145
0.0789 0.0129 0.0034 0.148
0.0699 0.0121 0.0030 0.119
3.0079 0.5473 0.1292 0.475
3.0059 0.5741 0.1293 0.467
3.0028 0.6007 0.1294 0.479
3.0033 0.6281 0.1297 0.467
2.9996 0.6547 0.1298 0.467
2.9977 0.6817 0.1299 0.475
2.9936 0.7083 0.1300 0.475
2.9941 0.7361 0.1303 0.477
2.9885 0.7624 0.1304 0.475
2.9837 0.7890 0.1304 0.477
2.9805 0.8161 0.1306 0.459
2.9820 0.8445 0.1310 0.477
2.9735 0.8702 0.1309 0.477
2.9773 0.8996 0.1315 0.477
2.9693 0.9255 0.1315 0.471
2.9649 0.9526 0.1316 0.477
2.9632 0.9807 0.1319 0.475
2.9611 1.0087 0.1322 0.480
2.9560 1.0359 0.1324 0.480
2.9534 1.0640 0.1327 0.465
2.9477 1.0911 0.1328 0.477
2.9474 1.1203 0.1333 0.463
2.9431 1.1482 0.1335 0.484
2.9386 1.1761 0.1338 0.479
2.9365 1.2051 0.1342 0.492
2.9369 1.2353 0.1347 0.484
2.9288 1.2621 0.1348 0.494
2.9286 1.2924 0.1353 0.494
2.9255 1.3216 0.1357 0.492
2.9211 1.3505 0.1360 0.494
2.9182 1.3802 0.1364 0.484
2.9168 1.4108 0.1369 0.482
2.9152 1.4415 0.1375 0.488
2.9105 1.4710 0.1378 0.480
2.9073 1.5013 0.1383 0.492
2.9029 1.5313 0.1387 0.490
2.9027 1.5637 0.1394 0.484
2.8959 1.5928 0.1397 0.482
2.8906 1.6229 0.1401 0.480
2.8876 1.6545 0.1407 0.484
2.8851 1.6867 0.1413 0.492
2.8815 1.7185 0.1418 0.488
2.8792 1.7514 0.1424 0.494
2.8765 1.7843 0.1431 0.492
2.8693 1.8147 0.1435 0.498
2.8676 1.8489 0.1442 0.482
3.0462 0.1763 0.1290 0.465
3.0485 0.2031 0.1291 0.486
3.0426 0.2294 0.1290 0.480
3.0445 0.2563 0.1291 0.477
3.0332 0.2820 0.1288 0.475
3.0356 0.3090 0.1290 0.480
3.0318 0.3354 0.1289 0.467
3.0287 0.3618 0.1289 0.475
3.0249 0.4150 0.1290 0.480
3.0133 0.4671 0.1289 0.473
3.0121 0.4939 0.1290 0.482
3.0106 0.5207 0.1291 0.465
0.0738 0.0467 0.0112 0.270
0.0758 0.0489 0.0116 0.223
0.0746 0.0490 0.0115 0.207
0.0824 0.0552 0.0127 0.215
0.0729 0.0498 0.0113 0.240
0.0782 0.0544 0.0122 0.174
0.0672 0.0476 0.0106 0.166
0.0804 0.0581 0.0127 0.172
0.0679 0.0499 0.0108 0.174
0.0834 0.0624 0.0134 0.145
0.0757 0.0577 0.0122 0.152
0.0752 0.0584 0.0122 0.197
0.0778 0.0615 0.0127 0.176
0.0773 0.0622 0.0127 0.205
0.0721 0.0591 0.0120 0.219
0.0693 0.0578 0.0116 0.195
0.0650 0.0552 0.0109 0.230
0.0691 0.0597 0.0117 0.178
0.0708 0.0622 0.0121 0.199
0.0747 0.0668 0.0129 0.164
0.0726 0.0661 0.0126 0.193
0.0655 0.0607 0.0115 0.203
0.0657 0.0619 0.0116 0.150
0.0630 0.0604 0.0112 0.211
0.0717 0.0700 0.0129 0.209
0.0668 0.0664 0.0121 0.137
0.0628 0.0635 0.0115 0.131
0.0753 0.0775 0.0139 0.123
0.0658 0.0689 0.0122 0.133
2.7248 2.9043 0.5109 0.494
2.7175 2.9476 0.5144 0.490
2.7156 2.9977 0.5189 0.492
0.0607 0.0682 0.0117 0.119
2.7047 3.0924 0.5271 0.496
2.6990 3.1407 0.5313 0.494
2.6938 3.1907 0.5357 0.488
2.6881 3.2408 0.5402 0.486
2.6803 3.2895 0.5444 0.473
2.6782 3.3460 0.5499 0.504
2.6863 3.4168 0.5576 0.512
2.6679 3.4551 0.5600 0.502
2.6556 3.5019 0.5639 0.490
2.6552 3.5655 0.5703 0.494
2.6468 3.6198 0.5753 0.510
2.6388 3.6758 0.5805 0.486
2.6318 3.7344 0.5861 0.494
2.6273 3.7980 0.5925 0.490
2.6197 3.8585 0.5983 0.490
2.6112 3.9192 0.6042 0.492
2.6057 3.9858 0.6109 0.486
2.5938 4.0443 0.6164 0.506
2.5928 4.1214 0.6247 0.488
2.5843 4.1886 0.6314 0.492
2.5738 4.2543 0.6379 0.492
2.5675 4.3286 0.6457 0.512
2.5580 4.3997 0.6529 0.490
2.5480 4.4718 0.6603 0.488
2.5398 4.5493 0.6685 0.498
2.5319 4.6296 0.6770 0.486
2.5219 4.7084 0.6853 0.490
2.8606 1.8102 0.4343 0.492
2.8564 1.8426 0.4361 0.482
2.8501 1.8740 0.4376 0.480
2.8493 1.9093 0.4400 0.486
2.8448 1.9425 0.4419 0.486
2.8408 1.9763 0.4440 0.471
2.8356 2.0096 0.4459 0.475
2.8356 2.0471 0.4487 0.490
2.8288 2.0800 0.4505 0.484
2.8257 2.1159 0.4529 0.498
2.8189 2.1495 0.4548 0.494
2.8157 2.1862 0.4573 0.486
2.8129 2.2236 0.4600 0.490
2.8073 2.2592 0.4623 0.492
2.8028 2.2962 0.4649 0.488
2.7941 2.3301 0.4668 0.482
2.7933 2.3711 0.4701 0.492
2.7875 2.4083 0.4726 0.486
2.7813 2.4457 0.4752 0.510
2.7776 2.4857 0.4782 0.490
2.7675 2.5206 0.4803 0.480
2.7673 2.5648 0.4841 0.479
2.7621 2.6052 0.4871 0.479
2.7550 2.6443 0.4899 0.475
2.7503 2.6863 0.4932 0.484
2.7478 2.7312 0.4971 0.490
2.7420 2.7734 0.5004 0.486
2.7391 2.8193 0.5043 0.496
2.7302 2.8596 0.5072 0.500
2.7105 3.0450 0.5230 0.494
0.0888 0.0047 0.0195 0.168
3.0523 0.1895 0.6713 0.498
0.0721 0.0051 0.0159 0.162
0.0730 0.0058 0.0161 0.148
0.0739 0.0065 0.0163 0.135
0.0681 0.0066 0.0150 0.141
0.0651 0.0069 0.0144 0.215
0.0611 0.0070 0.0135 0.119
0.0775 0.0096 0.0172 0.184
0.0736 0.0098 0.0163 0.160
3.0280 0.4284 0.6713 0.484
3.0242 0.4548 0.6713 0.477
0.0666 0.0106 0.0148 0.162
3.0225 0.5087 0.6728 0.482
0.0712 0.0126 0.0159 0.158
3.0113 0.5610 0.6723 0.473
3.0101 0.5880 0.6732 0.502
3.0125 0.6158 0.6749 0.480
3.0022 0.6410 0.6738 0.484
3.0032 0.6687 0.6753 0.475
0.0657 0.0152 0.0148 0.131
2.9996 0.7231 0.6773 0.488
2.9960 0.7499 0.6779 0.500
0.0747 0.0194 0.0169 0.129
2.9910 0.8044 0.6799 0.484
2.9923 0.8328 0.6818 0.506
2.9849 0.8589 0.6818 0.504
2.9867 0.8877 0.6839 0.508
2.9798 0.9140 0.6841 0.510
2.9801 0.9426 0.6861 0.502
2.9773 0.9704 0.6874 0.498
0.0685 0.0230 0.0159 0.137
2.9691 1.0254 0.6895 0.506
2.9619 1.0520 0.6899 0.516
0.0752 0.0275 0.0176 0.168
2.9577 1.1090 0.6934 0.498
2.9561 1.1379 0.6953 0.500
2.9534 1.1665 0.6970 0.504
2.9521 1.1959 0.6991 0.496
2.9452 1.2231 0.7000 0.502
2.9452 1.2534 0.7026 0.498
2.9368 1.2802 0.7032 0.494
2.9327 1.3090 0.7049 0.496
2.9318 1.3394 0.7075 0.494
2.9227 1.3662 0.7082 0.510
2.9221 1.3971 0.7109 0.492
2.9212 1.4281 0.7137 0.502
2.9139 1.4562 0.7150 0.512
2.9141 1.4882 0.7182 0.506
2.9088 1.5176 0.7202 0.516
2.9058 1.5485 0.7227 0.520
2.9042 1.5803 0.7257 0.504
2.9022 1.6122 0.7287 0.510
2.8948 1.6414 0.7304 0.520
2.8931 1.6739 0.7337 0.494
2.8918 1.7070 0.7371 0.518
2.8885 1.7392 0.7401 0.500
2.8824 1.7700 0.7425 0.506
2.8801 1.8034 0.7459 0.496
2.8733 1.8342 0.7482 0.504
3.0548 0.1629 0.6715 0.479
3.0496 0.2161 0.6711 0.480
3.0466 0.2426 0.6708 0.488
3.0463 0.2694 0.6713 0.480
3.0448 0.2960 0.6715 0.482
3.0382 0.3222 0.6706 0.490
3.0324 0.3483 0.6700 0.479
3.0331 0.3753 0.6708 0.482
3.0326 0.4021 0.6715 0.479
3.0201 0.4812 0.6713 0.482
3.0180 0.5350 0.6728 0.477
3.0011 0.6958 0.6762 0.482
2.9960 0.7778 0.6794 0.494
2.9715 0.9973 0.6880 0.502
2.9609 1.0808 0.6919 0.498
0.0769 0.0084 0.0241 0.121
0.0815 0.0097 0.0256 0.143
0.0767 0.0098 0.0241 0.146
0.0842 0.0115 0.0265 0.172
0.0765 0.0111 0.0241 0.133
0.0764 0.0118 0.0241 0.131
0.0754 0.0123 0.0238 0.154
0.0790 0.0136 0.0250 0.133
0.0864 0.0156 0.0274 0.197
0.0844 0.0160 0.0268 0.160
0.0899 0.0179 0.0286 0.152
0.0879 0.0183 0.0280 0.135
3.0151 0.6553 0.9621 0.541
0.0763 0.0173 0.0244 0.178
0.0790 0.0186 0.0253 0.148
0.0872 0.0213 0.0280 0.133
0.0638 0.0162 0.0205 0.133
3.0030 0.7913 0.9683 0.541
2.9978 0.8180 0.9689 0.543
0.0836 0.0236 0.0271 0.172
0.0697 0.0203 0.0226 0.123
2.9864 0.8995 0.9725 0.529
2.9884 0.9286 0.9758 0.539
2.9820 0.9552 0.9764 0.541
2.9799 0.9833 0.9785 0.541
0.0786 0.0267 0.0259 0.162
0.0838 0.0293 0.0277 0.146
2.9720 1.0678 0.9847 0.529
0.0815 0.0301 0.0271 0.158
0.0839 0.0318 0.0280 0.139
0.0694 0.0270 0.0232 0.137
2.9587 1.1811 0.9934 0.549
2.9518 1.2083 0.9945 0.555
2.9526 1.2388 0.9984 0.541
2.9460 1.2665 0.9999 0.559
2.9427 1.2956 1.0026 0.551
2.9400 1.3251 1.0056 0.559
2.9353 1.3539 1.0079 0.549
2.9354 1.3852 1.0121 0.555
2.9318 1.4149 1.0151 0.564
2.9279 1.4447 1.0181 0.547
2.9221 1.4736 1.0204 0.547
2.9210 1.5052 1.0246 0.559
2.9170 1.5355 1.0279 0.547
2.9111 1.5650 1.0306 0.539
2.9048 1.5944 1.0332 0.547
2.9050 1.6277 1.0383 0.551
2.9039 1.6605 1.0431 0.561
2.8943 1.6887 1.0449 0.572
2.8925 1.7217 1.0496 0.570
2.8913 1.7553 1.0547 0.563
2.8864 1.7870 1.0585 0.572
2.8812 1.8187 1.0624 0.563
2.8772 1.8516 1.0669 0.570
2.8730 1.8845 1.0713 0.555
2.8699 1.9185 1.0764 0.559
2.8696 1.9547 1.0827 0.564
2.8619 1.9862 1.0862 0.551
2.8592 2.0216 1.0919 0.564
2.8539 2.0554 1.0966 0.568
3.0414 0.3337 0.9541 0.557
3.0422 0.3607 0.9553 0.559
3.0371 0.3870 0.9547 0.559
3.0392 0.4143 0.9564 0.549
3.0336 0.4405 0.9558 0.553
3.0315 0.4672 0.9564 0.553
3.0274 0.4937 0.9564 0.543
3.0258 0.5206 0.9573 0.555
3.0230 0.5473 0.9579 0.549
3.0200 0.5740 0.9585 0.551
3.0195 0.6013 0.9600 0.531
3.0179 0.6284 0.9612 0.541
3.0083 0.6814 0.9618 0.539
3.0088 0.7091 0.9639 0.539
3.0071 0.7365 0.9654 0.523
3.0015 0.7629 0.9657 0.531
2.9906 0.8441 0.9689 0.551
2.9895 0.8720 0.9710 0.527
2.9758 1.0108 0.9800 0.537
2.9758 1.0399 0.9829 0.537
2.9662 1.0950 0.9859 0.529
2.9655 1.1242 0.9889 0.557
2.9618 1.1525 0.9910 0.563
-0.0747 -0.1277 0.0525 0.184
-0.0647 -0.1128 0.0462 0.268
-0.0637 -0.1134 0.0462 0.361
-0.0695 -0.1263 0.0512 0.420
-0.0689 -0.1277 0.0515 0.438
-0.0669 -0.1267 0.0508 0.459
-0.0675 -0.1306 0.0522 0.467
0.0644 0.0201 0.0279 0.236
0.0642 0.0206 0.0279 0.277
0.0667 0.0221 0.0290 0.262
0.0682 0.0232 0.0298 0.254
0.0785 0.0275 0.0344 0.283
0.0730 0.0263 0.0321 0.246
0.0815 0.0301 0.0359 0.240
0.0648 0.0246 0.0286 0.305
0.0663 0.0259 0.0294 0.256
0.0755 0.0302 0.0336 0.250
0.0616 0.0253 0.0275 0.271
0.0622 0.0261 0.0279 0.256
0.0645 0.0278 0.0290 0.271
0.0668 0.0295 0.0302 0.266
0.0649 0.0293 0.0294 0.275
0.0671 0.0310 0.0306 0.248
0.0535 0.0253 0.0244 0.260
0.0599 0.0290 0.0275 0.238
0.0630 0.0311 0.0290 0.299
0.0676 0.0342 0.0313 0.252
0.0608 0.0314 0.0283 0.313
0.0638 0.0336 0.0298 0.285
0.0610 0.0329 0.0286 0.313
0.0591 0.0325 0.0279 0.289
0.0653 0.0366 0.0309 0.273
0.0626 0.0358 0.0298 0.299
0.0606 0.0354 0.0290 0.314
0.0635 0.0379 0.0306 0.287
0.0655 0.0399 0.0317 0.264
0.0566 0.0351 0.0275 0.309
0.0695 0.0440 0.0340 0.217
0.0691 0.0446 0.0340 0.201
0.0587 0.0386 0.0290 0.205
0.0607 0.0406 0.0302 0.180
0.0641 0.0438 0.0321 0.182
0.0600 0.0417 0.0302 0.186
0.0588 0.0417 0.0298 0.145
2.8484 2.0545 1.4512 0.498
2.8400 2.0864 1.4561 0.496
2.8387 2.1238 1.4649 0.506
2.8341 2.1591 1.4722 0.508
2.8304 2.1957 1.4802 0.500
2.8242 2.2306 1.4871 0.498
2.8219 2.2691 1.4962 0.510
2.8185 2.3071 1.5050 0.518
2.8139 2.3446 1.5134 0.518
2.8109 2.3840 1.5230 0.514
2.8054 2.4217 1.5314 0.508
2.8022 2.4620 1.5413 0.512
2.7999 2.5036 1.5520 0.514
2.7930 2.5416 1.5604 0.521
2.7883 2.5822 1.5703 0.510
2.7812 2.6210 1.5791 0.523
2.7775 2.6637 1.5902 0.506
2.7767 2.7098 1.6032 0.514
2.7693 2.7502 1.6127 0.510
2.7660 2.7953 1.6249 0.510
2.7563 2.8346 1.6337 0.521
2.7538 2.8819 1.6471 0.531
2.7469 2.9254 1.6582 0.508
2.9745 0.9266 1.2873 0.502
2.9707 0.9539 1.2893 0.494
2.9640 0.9804 1.2900 0.482
2.9659 1.0098 1.2946 0.494
2.9657 1.0387 1.2984 0.504
2.9600 1.0658 1.2999 0.498
2.9540 1.0928 1.3015 0.488
2.9556 1.1229 1.3064 0.494
2.9526 1.1513 1.3095 0.480
2.9519 1.1808 1.3137 0.488
2.9492 1.2097 1.3171 0.473
2.9419 1.2368 1.3187 0.473
2.9395 1.2661 1.3225 0.480
2.9351 1.2946 1.3255 0.475
2.9329 1.3244 1.3297 0.477
2.9313 1.3546 1.3343 0.479
2.9269 1.3837 1.3378 0.475
2.9222 1.4128 1.3412 0.494
2.9189 1.4427 1.3454 0.475
2.9194 1.4748 1.3515 0.492
2.9130 1.5036 1.3546 0.480
2.9096 1.5342 1.3591 0.479
2.9066 1.5652 1.3641 0.488
2.9002 1.5945 1.3675 0.477
2.8998 1.6274 1.3740 0.482
2.8951 1.6582 1.3786 0.484
2.8893 1.6885 1.3828 0.473
2.8896 1.7227 1.3901 0.488
2.8831 1.7531 1.3943 0.484
2.8756 1.7831 1.3981 0.496
2.8716 1.8155 1.4038 0.480
2.8743 1.8525 1.4130 0.494
2.8627 1.8806 1.4153 0.506
2.8607 1.9152 1.4225 0.504
2.8569 1.9490 1.4290 0.502
2.8512 1.9818 1.4348 0.508
2.8526 2.0199 1.4443 0.500
-0.0501 -0.0840 0.0503 0.139
-0.0650 -0.1113 0.0663 0.270
-0.0650 -0.1134 0.0672 0.346
-0.0587 -0.1047 0.0617 0.385
-0.0638 -0.1161 0.0681 0.428
2.7191 2.9503 -0.5296 0.523
2.7105 2.9931 -0.5330 0.518
2.7067 3.0418 -0.5375 0.539
2.6996 3.0877 -0.5414 0.539
2.6907 3.1322 -0.5450 0.533
2.6882 3.1851 -0.5501 0.525
2.6824 3.2351 -0.5547 0.529
2.6741 3.2830 -0.5589 0.527
